ply
format ascii 1.0
element vertex 2102
property float32 x
property float32 y
property float32 z
property uchar red
property uchar green
property uchar blue
end_header
177	122	-35	67	106	77
177	123	-35.3	66	107	77
177	124	-35.6	67	108	76
177	125	-35.9	68	109	77
177	126	-36.2	67	108	74
177	127	-36.5	67	108	76
177	128	-36.8	67	108	76
177	129	-37.1	68	109	79
177	130	-37.3	68	107	80
177	131	-37.6	68	106	81
177	132	-37.8	69	107	82
177	133	-38.1	70	108	83
177	134	-38.3	69	108	81
177	135	-38.5	70	106	78
177	136	-38.7	70	104	77
177	137	-39	67	106	77
177	138	-39.2	69	108	77
177	139	-39.4	69	110	78
177	140	-39.6	69	110	80
177	141	-39.7	69	108	81
177	142	-39.9	68	106	81
177	143	-40.1	68	107	80
177	144	-40.3	69	108	81
177	145	-40.4	69	108	79
177	146	-40.6	68	109	79
177	147	-40.7	70	109	80
177	148	-40.9	73	109	81
177	149	-41	74	108	81
177	150	-41.1	73	107	80
177	151	-41.2	71	107	81
177	152	-41.3	70	106	80
177	153	-41.5	72	111	84
177	154	-41.6	70	109	82
177	155	-41.6	68	109	79
177	156	-41.7	67	108	78
177	157	-41.8	66	107	75
177	158	-41.9	66	105	76
177	159	-42	65	105	78
177	160	-42	65	105	79
177	161	-42.1	64	106	82
177	162	-42.1	65	107	83
177	163	-42.2	67	107	81
177	164	-42.2	69	108	81
177	165	-42.3	71	105	78
177	166	-42.3	71	103	79
177	167	-42.3	70	104	80
177	168	-42.3	68	103	81
177	169	-42.3	65	103	80
177	170	-42.3	66	106	82
177	171	-42.3	66	106	82
177	172	-42.3	66	106	80
177	173	-42.3	68	107	80
177	174	-42.3	71	107	79
177	175	-42.2	71	107	81
177	176	-42.2	70	106	80
177	177	-42.2	68	103	81
177	178	-42.1	69	104	82
177	179	-42.1	68	103	79
177	180	-42	70	104	79
177	181	-41.9	70	104	77
177	182	-41.9	69	105	77
177	183	-41.8	69	105	77
177	184	-41.7	69	105	77
177	185	-41.6	66	105	76
177	186	-41.5	65	104	77
177	187	-41.4	68	103	79
177	188	-41.3	69	104	80
177	189	-41.2	69	104	80
177	190	-41	69	103	79
177	191	-40.9	69	103	79
177	192	-40.8	70	104	80
177	193	-40.6	70	103	82
177	194	-40.5	69	102	81
177	195	-40.3	68	102	78
177	196	-40.2	68	102	77
177	197	-40	67	103	75
177	198	-39.8	67	104	73
177	199	-39.6	67	103	75
177	200	-39.4	67	103	75
177	201	-39.2	67	102	78
177	202	-39	66	101	77
177	203	-38.8	65	101	75
177	204	-38.6	67	101	76
177	205	-38.4	67	101	74
177	206	-38.2	66	100	75
177	207	-37.9	66	100	75
177	208	-37.7	67	101	77
177	209	-37.4	68	101	74
177	210	-37.2	66	100	73
177	211	-36.9	66	100	75
177	212	-36.6	66	100	76
177	213	-36.3	66	99	78
177	214	-36	68	100	79
177	215	-35.7	67	101	77
177	216	-35.4	66	100	76
177	217	-35.1	66	100	76
177	218	-34.8	65	100	76
177	219	-34.5	62	100	77
177	220	-34.1	62	100	77
177	221	-33.8	64	99	77
177	222	-33.4	63	98	74
177	223	-33.1	63	98	74
177	224	-32.7	64	99	75
177	225	-32.3	64	100	74
177	226	-31.9	63	99	73
177	227	-31.5	62	98	72
177	228	-31.1	63	99	71
177	229	-30.7	63	99	71
177	230	-30.3	64	98	71
177	231	-29.8	63	97	70
177	232	-29.4	65	98	69
177	233	-29	63	97	70
177	234	-28.5	62	98	72
177	235	-28	62	97	73
177	236	-27.5	61	97	71
177	237	-27.1	61	96	66
177	238	-26.6	60	95	65
177	239	-26	61	95	68
177	240	-25.5	60	95	71
177	241	-25	58	96	73
177	242	-24.5	60	95	73
177	243	-23.9	60	94	70
177	244	-23.3	61	93	70
177	245	-22.8	60	94	70
177	246	-22.2	60	94	70
177	247	-21.6	59	93	69
177	248	-21	59	93	68
177	249	-20.4	61	95	70
177	250	-19.7	59	93	68
177	251	-19.1	59	91	68
177	252	-18.4	58	92	68
177	253	-17.8	56	92	66
177	254	-17.1	55	91	65
177	255	-16.4	54	88	63
177	256	-15.7	56	88	65
177	257	-14.9	56	88	64
177	258	-14.2	55	89	64
177	259	-13.5	53	89	61
177	260	-12.7	54	88	63
177	261	-11.9	54	88	64
177	262	-11.1	54	86	65
177	263	-10.3	54	85	67
177	264	-9.5	53	86	67
177	265	-8.65	53	85	64
177	266	-7.8	53	85	62
177	267	-6.92	56	85	63
177	268	-6.03	58	83	64
177	269	-5.12	58	81	63
177	270	-4.2	58	79	62
177	271	-3.25	60	77	59
177	272	-2.28	58	75	56
177	273	-1.3	53	74	57
177	274	-0.292	50	75	56
177	275	0.738	47	76	58
177	276	1.78	45	77	56
177	277	2.86	48	77	55
177	278	3.95	49	78	56
177	279	5.07	48	78	54
177	280	6.21	46	76	52
177	281	7.38	45	72	53
177	282	8.57	44	71	52
177	283	9.8	44	71	52
177	284	11	44	71	52
177	285	12.3	43	70	51
177	286	13.6	42	69	50
177	287	15	42	69	50
177	288	16.4	43	70	51
177	289	17.8	46	74	52
177	290	19.2	46	74	52
177	291	20.7	45	73	51
177	292	22.3	44	72	50
177	293	23.8	43	71	49
177	294	25.5	43	71	49
177	295	27.2	40	68	45
177	296	28.9	39	67	44
177	297	30.7	36	64	39
177	298	32.5	38	63	41
177	299	34.4	39	60	41
177	300	36.4	40	58	42
177	301	38.5	40	58	44
177	302	40.7	35	53	39
177	303	42.9	28	46	32
177	304	45.3	27	43	30
177	305	47.8	25	41	30
177	306	50.5	30	43	34
177	307	53.3	28	39	33
177	308	56.3	30	36	32
177	309	59.5	34	34	32
177	310	63.1	39	33	33
177	311	67.1	42	34	32
177	312	71.6	38	28	26
177	313	77	28	24	21
178	27	71.5	26	27	21
178	28	66.9	26	31	24
178	29	62.9	27	35	24
178	30	59.3	27	37	26
178	31	56	29	39	28
178	32	53	30	42	32
178	33	50.2	32	44	34
178	34	47.6	34	48	35
178	35	45.1	35	52	36
178	36	42.7	36	53	37
178	37	40.4	37	54	38
178	38	38.3	38	54	41
178	39	36.2	39	57	43
178	40	34.2	38	59	44
178	41	32.3	36	61	42
178	42	30.5	37	62	43
178	43	28.7	39	62	44
178	44	27	40	63	45
178	45	25.3	42	63	46
178	46	23.7	44	65	48
178	47	22.1	44	67	49
178	48	20.6	45	70	51
178	49	19.1	44	71	52
178	50	17.6	44	71	52
178	51	16.2	44	71	52
178	52	14.9	44	71	52
178	53	13.5	46	73	54
178	54	12.2	47	74	55
178	55	11	47	74	55
178	56	9.72	48	76	54
178	57	8.51	48	77	57
178	58	7.32	51	79	57
178	59	6.16	52	80	58
178	60	5.03	52	79	60
178	61	3.92	51	80	60
178	62	2.84	51	80	60
178	63	1.77	53	82	62
178	64	0.734	56	84	62
178	65	-0.287	57	85	63
178	66	-1.28	56	85	63
178	67	-2.26	55	87	64
178	68	-3.22	55	87	64
178	69	-4.16	54	88	64
178	70	-5.08	55	89	65
178	71	-5.98	58	90	66
178	72	-6.86	57	89	65
178	73	-7.73	60	90	64
178	74	-8.58	58	91	64
178	75	-9.42	59	92	63
178	76	-10.2	58	93	63
178	77	-11	58	92	65
178	78	-11.8	58	92	65
178	79	-12.6	59	93	68
178	80	-13.4	61	93	69
178	81	-14.1	60	93	72
178	82	-14.8	61	94	73
178	83	-15.5	60	93	72
178	84	-16.2	61	94	73
178	85	-16.9	62	96	72
178	86	-17.6	62	96	72
178	87	-18.3	61	95	70
178	88	-18.9	61	97	71
178	89	-19.6	64	98	71
178	90	-20.2	64	99	69
178	91	-20.8	65	100	70
178	92	-21.4	65	100	70
178	93	-22	64	98	71
178	94	-22.6	63	99	73
178	95	-23.2	64	100	74
178	96	-23.7	65	101	75
178	97	-24.3	65	102	71
178	98	-24.8	63	102	71
178	99	-25.3	63	102	73
178	100	-25.8	65	101	73
178	101	-26.4	66	100	73
178	102	-26.9	66	100	73
178	103	-27.3	66	102	76
178	104	-27.8	67	103	77
178	105	-28.3	64	103	76
178	106	-28.7	66	102	76
178	107	-29.2	67	102	78
178	108	-29.6	67	102	78
178	109	-30.1	64	104	78
178	110	-30.5	62	105	78
178	111	-30.9	65	105	79
178	112	-31.3	65	105	79
178	113	-31.7	65	105	79
178	114	-32.1	63	103	79
178	115	-32.5	64	102	79
178	116	-32.8	68	103	81
178	117	-33.2	68	103	79
178	118	-33.6	65	104	77
178	119	-33.9	64	105	75
178	120	-34.2	64	107	77
178	121	-34.6	67	108	78
178	122	-34.9	67	108	78
178	123	-35.2	67	108	76
178	124	-35.5	65	109	76
178	125	-35.8	67	108	76
178	126	-36.1	66	107	75
178	127	-36.4	66	107	75
178	128	-36.7	68	107	76
178	129	-37	69	108	79
178	130	-37.2	69	108	79
178	131	-37.5	71	107	79
178	132	-37.7	69	108	79
178	133	-38	70	109	82
178	134	-38.2	71	109	84
178	135	-38.4	73	109	83
178	136	-38.6	73	107	82
178	137	-38.9	67	106	77
178	138	-39.1	68	109	79
178	139	-39.3	68	109	77
178	140	-39.4	69	108	79
178	141	-39.6	68	107	80
178	142	-39.8	69	105	79
178	143	-40	69	105	77
178	144	-40.2	69	105	77
178	145	-40.3	69	105	77
178	146	-40.5	68	107	78
178	147	-40.6	69	108	79
178	148	-40.8	70	109	80
178	149	-40.9	73	107	80
178	150	-41	73	107	80
178	151	-41.1	72	106	81
178	152	-41.2	71	107	81
178	153	-41.4	73	109	81
178	154	-41.5	71	107	79
178	155	-41.6	68	107	80
178	156	-41.6	68	107	78
178	157	-41.7	67	106	77
178	158	-41.8	66	105	78
178	159	-41.9	65	105	78
178	160	-41.9	66	106	80
178	161	-42	64	106	82
178	162	-42	66	106	80
178	163	-42.1	66	106	80
178	164	-42.1	68	107	80
178	165	-42.2	69	105	77
178	166	-42.2	69	105	77
178	167	-42.2	70	104	79
178	168	-42.2	70	104	80
178	169	-42.2	64	104	80
178	170	-42.2	65	105	81
178	171	-42.2	66	106	82
178	172	-42.2	65	105	79
178	173	-42.2	67	105	80
178	174	-42.2	69	105	79
178	175	-42.1	70	106	80
178	176	-42.1	71	107	81
178	177	-42.1	68	103	81
178	178	-42	67	102	80
178	179	-42	68	103	81
178	180	-41.9	70	104	80
178	181	-41.8	70	104	79
178	182	-41.8	69	105	79
178	183	-41.7	69	105	77
178	184	-41.6	68	104	76
178	185	-41.5	66	105	78
178	186	-41.4	66	105	78
178	187	-41.3	66	104	79
178	188	-41.2	68	103	81
178	189	-41.1	68	103	81
178	190	-40.9	69	102	81
178	191	-40.8	70	103	82
178	192	-40.7	70	103	82
178	193	-40.5	70	104	80
178	194	-40.4	70	104	79
178	195	-40.2	70	104	79
178	196	-40.1	70	104	79
178	197	-39.9	68	104	76
178	198	-39.7	68	104	78
178	199	-39.5	68	104	78
178	200	-39.3	68	104	78
178	201	-39.1	67	102	78
178	202	-38.9	66	101	77
178	203	-38.7	66	102	76
178	204	-38.5	67	103	77
178	205	-38.3	68	102	77
178	206	-38.1	67	101	76
178	207	-37.8	66	100	75
178	208	-37.6	66	100	75
178	209	-37.3	67	100	71
178	210	-37	67	100	71
178	211	-36.8	68	101	74
178	212	-36.5	68	100	76
178	213	-36.2	69	98	76
178	214	-35.9	70	99	79
178	215	-35.6	68	100	79
178	216	-35.3	66	99	78
178	217	-35	66	99	78
178	218	-34.7	66	99	78
178	219	-34.4	64	99	77
178	220	-34	65	100	78
178	221	-33.7	65	99	75
178	222	-33.3	63	97	73
178	223	-33	63	97	73
178	224	-32.6	65	99	75
178	225	-32.2	64	99	75
178	226	-31.8	63	99	73
178	227	-31.4	63	97	72
178	228	-31	64	98	71
178	229	-30.6	65	99	72
178	230	-30.2	64	98	71
178	231	-29.7	63	97	70
178	232	-29.3	64	98	71
178	233	-28.8	62	98	72
178	234	-28.4	62	98	72
178	235	-27.9	61	96	72
178	236	-27.4	61	97	71
178	237	-26.9	60	97	66
178	238	-26.4	61	96	66
178	239	-25.9	60	96	70
178	240	-25.4	60	95	71
178	241	-24.9	59	94	72
178	242	-24.3	59	94	70
178	243	-23.8	60	94	70
178	244	-23.2	60	92	68
178	245	-22.6	60	94	69
178	246	-22.1	60	94	69
178	247	-21.5	59	93	68
178	248	-20.9	59	93	68
178	249	-20.2	59	93	69
178	250	-19.6	58	92	68
178	251	-19	58	90	67
178	252	-18.3	58	92	67
178	253	-17.6	56	92	66
178	254	-16.9	54	90	64
178	255	-16.3	55	89	64
178	256	-15.5	56	88	65
178	257	-14.8	57	89	65
178	258	-14.1	55	89	64
178	259	-13.3	52	88	62
178	260	-12.6	53	89	63
178	261	-11.8	54	88	64
178	262	-11	54	87	66
178	263	-10.2	54	85	67
178	264	-9.36	52	85	66
178	265	-8.52	51	83	60
178	266	-7.66	52	84	61
178	267	-6.79	54	83	61
178	268	-5.89	57	82	61
178	269	-4.98	57	80	62
178	270	-4.05	59	77	61
178	271	-3.11	59	76	58
178	272	-2.14	58	75	56
178	273	-1.15	55	73	57
178	274	-0.141	51	74	56
178	275	0.884	48	75	56
178	276	1.94	48	77	57
178	277	3.01	48	77	55
178	278	4.11	48	78	54
178	279	5.22	47	77	53
178	280	6.37	46	76	52
178	281	7.54	43	72	52
178	282	8.74	45	72	53
178	283	9.96	44	71	52
178	284	11.2	43	70	51
178	285	12.5	42	69	50
178	286	13.8	41	69	47
178	287	15.2	41	69	47
178	288	16.5	43	71	49
178	289	18	46	74	52
178	290	19.4	45	72	53
178	291	20.9	45	72	53
178	292	22.5	43	70	51
178	293	24	42	69	50
178	294	25.7	41	69	47
178	295	27.4	41	66	45
178	296	29.1	40	65	43
178	297	30.9	38	66	41
178	298	32.8	38	63	41
178	299	34.7	33	54	35
178	300	36.7	32	53	36
178	301	38.8	38	56	42
178	302	40.9	35	53	39
178	303	43.2	28	46	32
178	304	45.6	26	44	30
178	305	48.1	27	43	32
178	306	50.8	29	42	33
178	307	53.6	27	38	32
178	308	56.6	29	35	33
178	309	59.9	30	32	31
178	310	63.5	38	34	33
178	311	67.5	43	38	34
178	312	72.1	35	28	22
178	313	77.6	23	22	17
179	27	72.2	25	26	20
179	28	67.4	25	30	23
179	29	63.4	27	35	24
179	30	59.7	27	37	26
179	31	56.4	29	39	28
179	32	53.4	30	42	32
179	33	50.5	32	44	34
179	34	47.9	34	48	35
179	35	45.4	34	51	35
179	36	43	36	53	37
179	37	40.7	37	54	38
179	38	38.5	38	54	41
179	39	36.5	38	56	42
179	40	34.5	36	57	42
179	41	32.6	35	60	41
179	42	30.7	36	61	42
179	43	28.9	39	62	44
179	44	27.2	40	63	45
179	45	25.5	42	63	46
179	46	23.9	43	64	47
179	47	22.3	44	67	49
179	48	20.8	44	69	50
179	49	19.3	42	69	50
179	50	17.8	42	69	50
179	51	16.4	42	69	50
179	52	15.1	44	71	52
179	53	13.7	45	72	53
179	54	12.4	46	73	54
179	55	11.1	47	74	55
179	56	9.9	47	75	53
179	57	8.69	47	76	56
179	58	7.5	51	79	57
179	59	6.34	52	80	58
179	60	5.2	52	79	60
179	61	4.09	51	80	60
179	62	3	51	80	60
179	63	1.94	53	82	62
179	64	0.894	55	83	61
179	65	-0.123	56	84	62
179	66	-1.13	56	85	63
179	67	-2.1	54	86	63
179	68	-3.06	54	86	63
179	69	-4	52	86	62
179	70	-4.93	54	88	64
179	71	-5.83	58	90	66
179	72	-6.71	57	89	65
179	73	-7.58	59	89	63
179	74	-8.43	57	90	63
179	75	-9.27	58	91	62
179	76	-10.1	57	92	62
179	77	-10.9	58	92	65
179	78	-11.7	59	93	66
179	79	-12.5	61	95	70
179	80	-13.2	63	95	71
179	81	-14	62	95	74
179	82	-14.7	62	95	74
179	83	-15.4	61	94	73
179	84	-16.1	61	94	73
179	85	-16.8	62	96	72
179	86	-17.5	62	96	72
179	87	-18.1	62	96	71
179	88	-18.8	61	97	71
179	89	-19.4	63	97	70
179	90	-20.1	64	99	69
179	91	-20.7	64	99	69
179	92	-21.3	64	99	69
179	93	-21.9	64	98	71
179	94	-22.5	64	100	74
179	95	-23	64	100	74
179	96	-23.6	65	101	75
179	97	-24.1	64	101	70
179	98	-24.7	62	101	70
179	99	-25.2	62	101	72
179	100	-25.7	64	100	72
179	101	-26.2	65	99	72
179	102	-26.7	65	99	72
179	103	-27.2	64	100	74
179	104	-27.7	65	101	75
179	105	-28.2	64	103	76
179	106	-28.6	66	102	76
179	107	-29.1	67	102	78
179	108	-29.5	67	102	78
179	109	-30	63	103	77
179	110	-30.4	61	104	77
179	111	-30.8	63	103	77
179	112	-31.2	63	103	77
179	113	-31.6	64	104	78
179	114	-32	62	102	78
179	115	-32.4	64	102	79
179	116	-32.7	68	103	81
179	117	-33.1	66	101	77
179	118	-33.5	65	104	77
179	119	-33.8	65	106	76
179	120	-34.1	64	107	77
179	121	-34.5	67	108	78
179	122	-34.8	67	108	78
179	123	-35.1	67	108	76
179	124	-35.4	65	109	76
179	125	-35.7	66	107	75
179	126	-36	66	107	75
179	127	-36.3	66	107	75
179	128	-36.6	68	107	76
179	129	-36.8	67	106	77
179	130	-37.1	69	108	79
179	131	-37.4	72	108	80
179	132	-37.6	71	110	81
179	133	-37.8	71	110	83
179	134	-38.1	72	110	85
179	135	-38.3	74	110	84
179	136	-38.5	72	106	81
179	137	-38.7	69	108	79
179	138	-39	68	109	79
179	139	-39.1	66	107	75
179	140	-39.3	68	107	78
179	141	-39.5	69	108	81
179	142	-39.7	71	107	81
179	143	-39.9	71	107	79
179	144	-40	70	106	78
179	145	-40.2	69	105	77
179	146	-40.4	67	106	77
179	147	-40.5	68	107	78
179	148	-40.6	69	108	79
179	149	-40.8	72	106	79
179	150	-40.9	72	106	79
179	151	-41	72	106	81
179	152	-41.1	71	107	81
179	153	-41.2	71	107	79
179	154	-41.4	71	107	79
179	155	-41.4	69	108	81
179	156	-41.5	68	107	78
179	157	-41.6	67	106	77
179	158	-41.7	68	107	80
179	159	-41.8	68	108	81
179	160	-41.8	67	107	81
179	161	-41.9	64	106	82
179	162	-41.9	65	105	79
179	163	-42	65	105	79
179	164	-42	67	106	79
179	165	-42	68	104	76
179	166	-42.1	68	104	76
179	167	-42.1	70	104	79
179	168	-42.1	70	104	80
179	169	-42.1	65	105	81
179	170	-42.1	65	105	81
179	171	-42.1	65	105	81
179	172	-42.1	66	106	80
179	173	-42.1	67	105	80
179	174	-42.1	67	103	77
179	175	-42	68	104	78
179	176	-42	71	107	81
179	177	-42	69	104	82
179	178	-41.9	66	101	79
179	179	-41.9	67	102	80
179	180	-41.8	70	104	80
179	181	-41.7	69	103	78
179	182	-41.7	69	105	79
179	183	-41.6	69	105	77
179	184	-41.5	68	104	76
179	185	-41.4	67	106	79
179	186	-41.3	67	106	79
179	187	-41.2	67	105	80
179	188	-41.1	68	103	81
179	189	-41	67	102	80
179	190	-40.8	69	102	81
179	191	-40.7	70	103	82
179	192	-40.6	69	102	81
179	193	-40.4	68	102	78
179	194	-40.3	68	102	77
179	195	-40.1	68	102	77
179	196	-40	67	101	76
179	197	-39.8	65	101	73
179	198	-39.6	65	101	75
179	199	-39.4	66	102	76
179	200	-39.2	66	102	76
179	201	-39	66	101	77
179	202	-38.8	66	101	77
179	203	-38.6	66	102	76
179	204	-38.4	66	102	76
179	205	-38.2	68	102	77
179	206	-37.9	67	101	76
179	207	-37.7	66	100	75
179	208	-37.5	66	100	75
179	209	-37.2	67	100	71
179	210	-36.9	68	101	72
179	211	-36.7	71	104	77
179	212	-36.4	70	102	78
179	213	-36.1	70	99	77
179	214	-35.8	68	97	77
179	215	-35.5	66	98	77
179	216	-35.2	64	97	76
179	217	-34.9	65	98	77
179	218	-34.6	65	98	77
179	219	-34.2	64	99	77
179	220	-33.9	65	100	78
179	221	-33.6	66	100	76
179	222	-33.2	64	98	74
179	223	-32.8	63	97	73
179	224	-32.5	64	98	74
179	225	-32.1	65	100	76
179	226	-31.7	63	99	73
179	227	-31.3	64	98	73
179	228	-30.9	65	99	72
179	229	-30.5	65	99	72
179	230	-30.1	64	98	71
179	231	-29.6	63	97	70
179	232	-29.2	64	98	71
179	233	-28.7	62	98	72
179	234	-28.3	61	97	71
179	235	-27.8	60	95	71
179	236	-27.3	60	96	70
179	237	-26.8	60	97	66
179	238	-26.3	60	95	65
179	239	-25.8	59	95	69
179	240	-25.3	59	94	70
179	241	-24.8	58	93	71
179	242	-24.2	59	94	70
179	243	-23.7	59	93	69
179	244	-23.1	60	92	68
179	245	-22.5	59	93	68
179	246	-21.9	59	93	68
179	247	-21.3	59	93	68
179	248	-20.7	58	92	67
179	249	-20.1	57	91	67
179	250	-19.5	57	91	67
179	251	-18.8	58	90	67
179	252	-18.2	57	91	66
179	253	-17.5	55	91	65
179	254	-16.8	55	91	65
179	255	-16.1	56	90	65
179	256	-15.4	57	89	66
179	257	-14.7	56	88	64
179	258	-14	54	88	63
179	259	-13.2	52	88	62
179	260	-12.4	53	89	63
179	261	-11.7	54	88	64
179	262	-10.9	53	86	65
179	263	-10	54	85	67
179	264	-9.22	51	84	65
179	265	-8.37	51	83	60
179	266	-7.52	51	83	60
179	267	-6.64	53	82	60
179	268	-5.75	56	81	60
179	269	-4.83	57	80	62
179	270	-3.9	59	77	61
179	271	-2.95	59	76	58
179	272	-1.98	58	75	56
179	273	-0.993	55	73	57
179	274	0.0134	51	74	56
179	275	1.05	48	75	56
179	276	2.1	47	76	56
179	277	3.17	47	76	54
179	278	4.27	47	77	53
179	279	5.39	46	76	52
179	280	6.54	45	75	51
179	281	7.71	43	72	52
179	282	8.91	44	71	52
179	283	10.1	44	71	52
179	284	11.4	43	70	51
179	285	12.7	41	68	49
179	286	14	41	69	47
179	287	15.4	41	69	47
179	288	16.7	43	71	49
179	289	18.2	43	71	49
179	290	19.6	43	70	51
179	291	21.1	43	70	51
179	292	22.7	42	69	50
179	293	24.3	40	67	48
179	294	25.9	39	67	45
179	295	27.6	40	65	44
179	296	29.3	41	66	44
179	297	31.1	36	64	39
179	298	33	38	63	41
179	299	34.9	35	56	37
179	300	36.9	32	53	36
179	301	39	37	55	41
179	302	41.2	34	52	38
179	303	43.5	28	46	32
179	304	45.9	27	45	31
179	305	48.4	27	43	32
179	306	51.1	28	41	32
179	307	53.9	28	39	33
179	308	57	30	36	34
179	309	60.3	26	28	27
179	310	63.9	31	27	26
179	311	68	38	33	29
179	312	72.7	31	24	18
179	313	78.3	18	17	12
180	28	68	24	29	22
180	29	63.8	25	32	24
180	30	60.2	26	36	27
180	31	56.8	27	39	29
180	32	53.8	29	41	31
180	33	50.9	30	44	31
180	34	48.2	32	46	33
180	35	45.7	33	50	34
180	36	43.3	35	52	36
180	37	41	36	52	39
180	38	38.8	36	54	40
180	39	36.7	34	55	40
180	40	34.7	35	56	41
180	41	32.8	36	59	41
180	42	31	37	60	42
180	43	29.2	39	60	43
180	44	27.4	42	60	44
180	45	25.7	43	61	45
180	46	24.1	45	63	47
180	47	22.5	43	66	48
180	48	21	43	68	49
180	49	19.5	41	68	49
180	50	18.1	41	68	49
180	51	16.6	42	69	50
180	52	15.3	44	71	52
180	53	13.9	46	73	54
180	54	12.6	46	73	54
180	55	11.3	46	73	54
180	56	10.1	47	75	53
180	57	8.87	47	76	56
180	58	7.68	50	77	58
180	59	6.52	54	79	60
180	60	5.38	55	80	61
180	61	4.27	53	80	61
180	62	3.18	53	80	61
180	63	2.11	54	81	62
180	64	1.07	55	83	61
180	65	0.0446	55	83	61
180	66	-0.954	56	85	63
180	67	-1.94	54	86	63
180	68	-2.9	53	87	63
180	69	-3.84	52	86	62
180	70	-4.76	55	87	64
180	71	-5.67	60	89	67
180	72	-6.55	59	88	66
180	73	-7.43	59	87	64
180	74	-8.28	59	89	65
180	75	-9.12	60	90	64
180	76	-9.93	57	91	64
180	77	-10.7	58	92	65
180	78	-11.5	58	94	66
180	79	-12.3	61	95	68
180	80	-13.1	63	96	69
180	81	-13.8	62	96	72
180	82	-14.5	62	96	72
180	83	-15.3	62	96	72
180	84	-16	62	96	72
180	85	-16.7	63	97	73
180	86	-17.3	63	97	72
180	87	-18	63	97	72
180	88	-18.7	64	98	71
180	89	-19.3	62	97	65
180	90	-19.9	63	98	66
180	91	-20.5	64	99	67
180	92	-21.1	64	99	69
180	93	-21.7	64	98	71
180	94	-22.3	64	98	73
180	95	-22.9	64	100	74
180	96	-23.5	64	100	74
180	97	-24	63	102	71
180	98	-24.5	65	101	73
180	99	-25.1	65	101	73
180	100	-25.6	65	101	75
180	101	-26.1	65	101	75
180	102	-26.6	64	100	74
180	103	-27.1	62	100	75
180	104	-27.6	63	101	76
180	105	-28	63	101	76
180	106	-28.5	66	101	77
180	107	-29	67	102	80
180	108	-29.4	66	101	79
180	109	-29.8	63	101	78
180	110	-30.2	62	102	76
180	111	-30.7	62	102	76
180	112	-31.1	63	101	76
180	113	-31.5	63	103	79
180	114	-31.9	63	101	78
180	115	-32.2	64	102	79
180	116	-32.6	67	102	80
180	117	-33	67	102	78
180	118	-33.3	65	104	77
180	119	-33.7	65	106	74
180	120	-34	63	107	74
180	121	-34.3	65	106	76
180	122	-34.7	66	107	77
180	123	-35	67	108	76
180	124	-35.3	66	107	77
180	125	-35.6	64	107	77
180	126	-35.9	67	108	78
180	127	-36.2	68	107	78
180	128	-36.5	68	107	78
180	129	-36.7	70	106	80
180	130	-37	69	105	77
180	131	-37.2	69	106	75
180	132	-37.5	70	106	78
180	133	-37.7	68	106	81
180	134	-38	68	106	81
180	135	-38.2	70	105	81
180	136	-38.4	70	106	80
180	137	-38.6	69	108	79
180	138	-38.8	68	107	78
180	139	-39	66	107	77
180	140	-39.2	68	107	78
180	141	-39.4	69	108	79
180	142	-39.6	72	108	80
180	143	-39.8	72	108	80
180	144	-39.9	72	108	80
180	145	-40.1	69	106	75
180	146	-40.2	67	106	77
180	147	-40.4	67	108	78
180	148	-40.5	68	107	78
180	149	-40.7	70	106	78
180	150	-40.8	72	106	79
180	151	-40.9	73	107	80
180	152	-41	73	107	82
180	153	-41.1	71	107	79
180	154	-41.2	69	108	81
180	155	-41.3	69	108	81
180	156	-41.4	68	107	80
180	157	-41.5	68	107	80
180	158	-41.6	69	108	79
180	159	-41.7	69	108	81
180	160	-41.7	67	107	80
180	161	-41.8	64	106	82
180	162	-41.8	64	104	78
180	163	-41.9	65	105	79
180	164	-41.9	66	106	79
180	165	-41.9	65	106	76
180	166	-42	66	105	76
180	167	-42	69	105	77
180	168	-42	71	103	79
180	169	-42	69	104	80
180	170	-42	66	104	79
180	171	-42	65	103	80
180	172	-42	67	105	80
180	173	-42	67	105	80
180	174	-42	64	103	76
180	175	-41.9	64	103	76
180	176	-41.9	67	108	78
180	177	-41.8	69	104	80
180	178	-41.8	67	102	78
180	179	-41.7	66	101	77
180	180	-41.7	67	102	78
180	181	-41.6	67	102	78
180	182	-41.5	68	104	78
180	183	-41.5	69	105	79
180	184	-41.4	70	106	80
180	185	-41.3	66	106	79
180	186	-41.2	66	106	79
180	187	-41.1	67	105	80
180	188	-41	66	104	81
180	189	-40.9	68	103	81
180	190	-40.7	68	103	81
180	191	-40.6	69	102	81
180	192	-40.5	68	101	80
180	193	-40.3	66	102	76
180	194	-40.2	68	102	77
180	195	-40	68	102	77
180	196	-39.8	69	103	78
180	197	-39.7	67	103	77
180	198	-39.5	66	101	77
180	199	-39.3	66	101	77
180	200	-39.1	66	100	76
180	201	-38.9	66	102	76
180	202	-38.7	66	102	76
180	203	-38.5	66	101	77
180	204	-38.3	65	100	76
180	205	-38.1	65	100	76
180	206	-37.8	65	100	76
180	207	-37.6	65	101	75
180	208	-37.3	65	101	73
180	209	-37.1	66	100	73
180	210	-36.8	67	101	74
180	211	-36.6	69	102	75
180	212	-36.3	71	101	77
180	213	-36	69	98	76
180	214	-35.7	68	97	77
180	215	-35.4	66	99	78
180	216	-35.1	67	100	79
180	217	-34.8	64	97	78
180	218	-34.5	63	98	76
180	219	-34.1	63	98	74
180	220	-33.8	64	99	75
180	221	-33.4	66	100	76
180	222	-33.1	65	99	75
180	223	-32.7	64	97	76
180	224	-32.3	64	97	76
180	225	-32	65	100	76
180	226	-31.6	65	99	75
180	227	-31.2	64	98	73
180	228	-30.8	64	98	73
180	229	-30.4	65	98	71
180	230	-29.9	63	97	72
180	231	-29.5	63	97	72
180	232	-29	63	97	73
180	233	-28.6	62	97	73
180	234	-28.1	61	96	72
180	235	-27.7	60	95	71
180	236	-27.2	60	96	70
180	237	-26.7	60	94	67
180	238	-26.2	60	94	67
180	239	-25.7	59	95	69
180	240	-25.2	58	93	71
180	241	-24.6	57	95	72
180	242	-24.1	59	94	70
180	243	-23.5	59	93	69
180	244	-23	58	92	67
180	245	-22.4	58	92	67
180	246	-21.8	58	92	67
180	247	-21.2	58	92	67
180	248	-20.6	58	92	68
180	249	-20	57	91	67
180	250	-19.3	57	91	67
180	251	-18.7	57	91	66
180	252	-18	56	90	65
180	253	-17.4	56	90	63
180	254	-16.7	56	90	63
180	255	-16	57	89	65
180	256	-15.3	59	88	66
180	257	-14.5	56	88	65
180	258	-13.8	54	88	63
180	259	-13.1	49	88	61
180	260	-12.3	50	89	62
180	261	-11.5	52	87	63
180	262	-10.7	52	86	62
180	263	-9.9	53	85	62
180	264	-9.06	51	83	60
180	265	-8.22	51	83	60
180	266	-7.36	53	82	60
180	267	-6.48	54	84	60
180	268	-5.58	55	83	61
180	269	-4.67	57	80	60
180	270	-3.74	57	78	59
180	271	-2.79	56	77	58
180	272	-1.82	57	76	57
180	273	-0.83	55	73	57
180	274	0.184	51	74	56
180	275	1.21	50	75	56
180	276	2.27	48	75	56
180	277	3.34	48	76	54
180	278	4.45	47	75	53
180	279	5.57	46	74	52
180	280	6.72	45	74	52
180	281	7.89	43	72	52
180	282	9.1	44	71	52
180	283	10.3	43	70	51
180	284	11.6	42	69	50
180	285	12.9	41	69	47
180	286	14.2	41	69	47
180	287	15.6	42	70	48
180	288	16.9	44	72	49
180	289	18.4	43	70	51
180	290	19.8	42	69	50
180	291	21.3	42	71	51
180	292	22.9	41	70	50
180	293	24.5	41	68	49
180	294	26.1	40	67	48
180	295	27.8	41	66	45
180	296	29.6	43	66	46
180	297	31.4	38	63	41
180	298	33.2	37	61	39
180	299	35.2	32	53	34
180	300	37.2	29	50	33
180	301	39.3	33	51	37
180	302	41.5	32	50	36
180	303	43.8	29	47	33
180	304	46.2	27	45	31
180	305	48.7	26	42	29
180	306	51.4	25	41	30
180	307	54.3	26	39	30
180	308	57.4	27	36	31
180	309	60.7	26	31	27
180	310	64.4	26	27	22
180	311	68.5	28	25	20
180	312	73.3	24	21	16
181	28	68.5	23	28	21
181	29	64.4	24	31	23
181	30	60.6	25	35	26
181	31	57.3	26	38	28
181	32	54.2	28	40	30
181	33	51.3	28	42	29
181	34	48.6	31	45	32
181	35	46	32	49	33
181	36	43.6	34	51	35
181	37	41.3	35	51	38
181	38	39.1	35	53	39
181	39	37	34	55	40
181	40	35	35	56	41
181	41	33.1	36	59	41
181	42	31.2	37	60	42
181	43	29.4	39	60	43
181	44	27.7	42	60	44
181	45	26	44	62	46
181	46	24.4	45	63	47
181	47	22.8	43	66	48
181	48	21.2	42	67	48
181	49	19.7	41	68	49
181	50	18.3	41	68	49
181	51	16.9	42	69	50
181	52	15.5	44	71	52
181	53	14.1	46	73	54
181	54	12.8	47	74	55
181	55	11.5	46	73	54
181	56	10.3	47	75	53
181	57	9.07	46	75	55
181	58	7.88	49	76	57
181	59	6.71	54	79	60
181	60	5.57	54	79	60
181	61	4.46	53	80	61
181	62	3.36	53	80	61
181	63	2.3	53	80	61
181	64	1.25	54	82	60
181	65	0.228	56	84	62
181	66	-0.777	56	85	63
181	67	-1.76	54	86	63
181	68	-2.72	54	88	64
181	69	-3.66	53	87	63
181	70	-4.59	55	87	64
181	71	-5.5	60	89	67
181	72	-6.39	58	87	65
181	73	-7.26	58	86	63
181	74	-8.11	58	88	64
181	75	-8.95	59	89	63
181	76	-9.77	57	91	64
181	77	-10.6	57	91	64
181	78	-11.4	57	93	65
181	79	-12.1	59	93	66
181	80	-12.9	61	94	67
181	81	-13.7	61	95	71
181	82	-14.4	61	95	71
181	83	-15.1	61	95	71
181	84	-15.8	62	96	72
181	85	-16.5	63	97	73
181	86	-17.2	63	97	72
181	87	-17.8	63	97	72
181	88	-18.5	65	99	72
181	89	-19.1	63	98	66
181	90	-19.8	64	99	67
181	91	-20.4	64	99	67
181	92	-21	64	99	69
181	93	-21.6	64	98	71
181	94	-22.2	64	98	73
181	95	-22.8	64	100	74
181	96	-23.3	64	100	74
181	97	-23.9	62	101	70
181	98	-24.4	64	100	72
181	99	-24.9	64	100	72
181	100	-25.5	65	101	75
181	101	-26	65	101	75
181	102	-26.5	64	100	74
181	103	-27	62	100	75
181	104	-27.4	62	100	75
181	105	-27.9	63	101	76
181	106	-28.4	66	101	77
181	107	-28.8	67	102	80
181	108	-29.3	66	101	79
181	109	-29.7	63	101	78
181	110	-30.1	62	102	76
181	111	-30.5	62	102	76
181	112	-30.9	63	101	76
181	113	-31.3	63	103	79
181	114	-31.7	63	101	78
181	115	-32.1	63	101	78
181	116	-32.5	66	101	79
181	117	-32.8	68	103	79
181	118	-33.2	66	105	78
181	119	-33.5	64	105	73
181	120	-33.9	63	107	74
181	121	-34.2	64	105	75
181	122	-34.5	66	107	77
181	123	-34.9	66	107	75
181	124	-35.2	66	107	77
181	125	-35.5	64	107	77
181	126	-35.8	67	108	78
181	127	-36	69	108	79
181	128	-36.3	69	108	79
181	129	-36.6	74	110	84
181	130	-36.9	71	107	79
181	131	-37.1	70	107	76
181	132	-37.4	71	107	79
181	133	-37.6	68	106	81
181	134	-37.8	66	104	79
181	135	-38.1	68	103	79
181	136	-38.3	69	105	79
181	137	-38.5	68	107	78
181	138	-38.7	69	108	79
181	139	-38.9	68	109	79
181	140	-39.1	68	107	78
181	141	-39.3	67	106	77
181	142	-39.5	69	105	77
181	143	-39.6	69	105	77
181	144	-39.8	71	107	79
181	145	-40	70	107	76
181	146	-40.1	68	107	78
181	147	-40.3	67	108	78
181	148	-40.4	68	107	78
181	149	-40.5	70	106	78
181	150	-40.7	72	106	79
181	151	-40.8	73	107	80
181	152	-40.9	74	108	83
181	153	-41	71	107	79
181	154	-41.1	67	106	79
181	155	-41.2	66	105	78
181	156	-41.3	68	107	80
181	157	-41.4	68	107	80
181	158	-41.5	68	107	78
181	159	-41.5	67	106	79
181	160	-41.6	65	105	78
181	161	-41.7	65	107	83
181	162	-41.7	65	105	79
181	163	-41.8	65	105	79
181	164	-41.8	66	106	79
181	165	-41.8	66	107	77
181	166	-41.9	67	106	77
181	167	-41.9	70	106	78
181	168	-41.9	71	103	79
181	169	-41.9	68	103	79
181	170	-41.9	66	104	79
181	171	-41.9	65	103	80
181	172	-41.9	66	104	79
181	173	-41.9	67	105	80
181	174	-41.8	64	103	76
181	175	-41.8	64	103	76
181	176	-41.8	65	106	76
181	177	-41.7	68	103	79
181	178	-41.7	67	102	78
181	179	-41.6	65	100	76
181	180	-41.6	65	100	76
181	181	-41.5	66	101	77
181	182	-41.4	66	102	76
181	183	-41.3	67	103	77
181	184	-41.3	70	106	80
181	185	-41.2	65	105	78
181	186	-41.1	65	105	78
181	187	-41	66	104	79
181	188	-40.9	66	104	81
181	189	-40.7	68	103	81
181	190	-40.6	67	102	80
181	191	-40.5	68	101	80
181	192	-40.3	68	101	80
181	193	-40.2	68	104	78
181	194	-40	69	103	78
181	195	-39.9	68	102	77
181	196	-39.7	68	102	77
181	197	-39.6	66	102	76
181	198	-39.4	66	101	77
181	199	-39.2	67	102	78
181	200	-39	67	101	77
181	201	-38.8	65	101	75
181	202	-38.6	66	102	76
181	203	-38.4	65	100	76
181	204	-38.2	64	99	75
181	205	-37.9	64	99	75
181	206	-37.7	64	99	75
181	207	-37.5	64	100	74
181	208	-37.2	65	101	73
181	209	-37	66	100	73
181	210	-36.7	66	100	73
181	211	-36.4	68	101	74
181	212	-36.2	71	101	77
181	213	-35.9	70	99	77
181	214	-35.6	69	98	78
181	215	-35.3	65	98	77
181	216	-35	64	97	76
181	217	-34.7	64	97	78
181	218	-34.3	63	98	76
181	219	-34	62	97	73
181	220	-33.7	63	98	74
181	221	-33.3	65	99	75
181	222	-33	65	99	75
181	223	-32.6	64	97	76
181	224	-32.2	64	97	76
181	225	-31.8	64	99	75
181	226	-31.4	64	98	74
181	227	-31	63	97	72
181	228	-30.6	63	97	72
181	229	-30.2	64	97	70
181	230	-29.8	63	97	72
181	231	-29.4	62	96	71
181	232	-28.9	62	96	72
181	233	-28.5	62	97	73
181	234	-28	62	97	73
181	235	-27.5	61	96	72
181	236	-27	61	97	71
181	237	-26.6	61	95	68
181	238	-26.1	60	94	67
181	239	-25.5	60	96	70
181	240	-25	60	95	73
181	241	-24.5	57	95	72
181	242	-23.9	59	94	70
181	243	-23.4	59	93	69
181	244	-22.8	58	92	67
181	245	-22.2	57	91	66
181	246	-21.7	57	91	66
181	247	-21.1	57	91	66
181	248	-20.4	57	91	67
181	249	-19.8	57	91	67
181	250	-19.2	58	92	68
181	251	-18.5	57	91	66
181	252	-17.9	55	89	64
181	253	-17.2	55	89	62
181	254	-16.5	56	90	63
181	255	-15.8	56	88	64
181	256	-15.1	57	86	64
181	257	-14.4	55	87	64
181	258	-13.7	54	88	63
181	259	-12.9	49	88	61
181	260	-12.1	50	89	62
181	261	-11.3	51	86	62
181	262	-10.5	51	85	61
181	263	-9.73	52	84	61
181	264	-8.91	51	83	60
181	265	-8.06	51	83	60
181	266	-7.2	53	82	60
181	267	-6.31	53	83	59
181	268	-5.42	54	82	60
181	269	-4.5	57	80	60
181	270	-3.57	57	78	59
181	271	-2.62	56	77	58
181	272	-1.65	56	75	56
181	273	-0.651	55	73	57
181	274	0.359	51	74	56
181	275	1.4	50	75	56
181	276	2.45	48	75	56
181	277	3.53	48	76	54
181	278	4.63	47	75	53
181	279	5.76	46	74	52
181	280	6.91	45	74	52
181	281	8.09	43	72	52
181	282	9.29	44	71	52
181	283	10.5	43	70	51
181	284	11.8	42	69	50
181	285	13.1	42	70	48
181	286	14.4	42	70	48
181	287	15.8	42	70	48
181	288	17.2	44	72	49
181	289	18.6	42	69	50
181	290	20.1	41	68	49
181	291	21.6	40	69	49
181	292	23.1	40	69	49
181	293	24.7	41	68	49
181	294	26.4	39	66	47
181	295	28.1	37	62	41
181	296	29.8	38	61	41
181	297	31.6	35	60	38
181	298	33.5	34	58	36
181	299	35.5	33	54	35
181	300	37.5	30	51	34
181	301	39.6	30	48	34
181	302	41.8	30	48	34
181	303	44.1	29	47	33
181	304	46.5	26	44	30
181	305	49.1	26	42	29
181	306	51.8	26	42	31
181	307	54.7	25	38	29
181	308	57.8	26	35	30
181	309	61.2	29	34	30
181	310	64.9	32	33	28
181	311	69.1	32	29	24
181	312	74	30	27	22
182	28	69.2	23	28	22
182	29	64.9	24	31	24
182	30	61.1	26	33	26
182	31	57.7	26	37	29
182	32	54.6	27	40	31
182	33	51.7	27	41	28
182	34	49	28	44	31
182	35	46.4	31	48	32
182	36	44	34	51	35
182	37	41.7	36	53	37
182	38	39.5	36	54	40
182	39	37.3	34	55	38
182	40	35.3	35	58	40
182	41	33.4	38	56	40
182	42	31.5	39	57	41
182	43	29.7	40	58	42
182	44	27.9	44	61	45
182	45	26.3	46	63	47
182	46	24.6	45	63	47
182	47	23	43	66	48
182	48	21.5	43	68	49
182	49	20	40	67	48
182	50	18.5	41	68	49
182	51	17.1	42	69	50
182	52	15.7	43	70	51
182	53	14.4	45	72	53
182	54	13	46	73	54
182	55	11.8	46	73	54
182	56	10.5	47	75	53
182	57	9.28	48	77	57
182	58	8.09	50	77	58
182	59	6.92	53	78	59
182	60	5.78	54	79	60
182	61	4.66	53	78	59
182	62	3.56	53	80	61
182	63	2.49	54	81	62
182	64	1.45	55	82	63
182	65	0.417	55	84	62
182	66	-0.586	55	84	64
182	67	-1.57	54	86	65
182	68	-2.53	53	86	65
182	69	-3.48	52	85	64
182	70	-4.41	54	86	63
182	71	-5.32	57	86	64
182	72	-6.21	59	87	64
182	73	-7.08	58	86	64
182	74	-7.94	59	87	65
182	75	-8.78	59	88	66
182	76	-9.6	58	90	66
182	77	-10.4	57	91	66
182	78	-11.2	58	92	67
182	79	-12	59	93	66
182	80	-12.7	59	92	65
182	81	-13.5	58	92	67
182	82	-14.2	59	93	68
182	83	-14.9	59	94	70
182	84	-15.6	61	95	71
182	85	-16.3	62	96	71
182	86	-17	62	96	71
182	87	-17.7	63	97	70
182	88	-18.3	63	97	70
182	89	-19	60	97	64
182	90	-19.6	63	100	67
182	91	-20.2	64	101	70
182	92	-20.8	65	99	74
182	93	-21.4	64	98	74
182	94	-22	63	98	74
182	95	-22.6	63	98	74
182	96	-23.2	64	100	74
182	97	-23.7	63	99	71
182	98	-24.3	63	99	73
182	99	-24.8	63	99	73
182	100	-25.3	63	98	74
182	101	-25.8	62	100	75
182	102	-26.3	62	102	76
182	103	-26.8	62	102	76
182	104	-27.3	60	102	78
182	105	-27.8	61	99	74
182	106	-28.2	62	100	77
182	107	-28.7	65	100	78
182	108	-29.1	65	100	78
182	109	-29.6	64	102	79
182	110	-30	66	101	77
182	111	-30.4	66	101	77
182	112	-30.8	66	101	77
182	113	-31.2	64	102	77
182	114	-31.6	64	102	77
182	115	-32	66	101	77
182	116	-32.3	67	102	78
182	117	-32.7	68	104	78
182	118	-33.1	69	105	77
182	119	-33.4	65	106	74
182	120	-33.8	62	106	71
182	121	-34.1	65	105	78
182	122	-34.4	66	107	77
182	123	-34.7	65	106	76
182	124	-35	64	104	77
182	125	-35.3	64	107	80
182	126	-35.6	66	106	82
182	127	-35.9	67	105	82
182	128	-36.2	71	106	82
182	129	-36.5	68	103	81
182	130	-36.7	69	104	80
182	131	-37	70	106	80
182	132	-37.2	69	105	79
182	133	-37.5	66	104	79
182	134	-37.7	67	105	82
182	135	-37.9	68	106	81
182	136	-38.2	67	106	79
182	137	-38.4	69	105	77
182	138	-38.6	68	107	78
182	139	-38.8	68	107	78
182	140	-39	66	107	77
182	141	-39.2	67	106	77
182	142	-39.3	67	106	77
182	143	-39.5	67	106	77
182	144	-39.7	67	106	77
182	145	-39.8	69	106	75
182	146	-40	67	106	75
182	147	-40.1	66	107	77
182	148	-40.3	66	107	77
182	149	-40.4	66	105	74
182	150	-40.5	71	107	79
182	151	-40.7	73	107	80
182	152	-40.8	70	104	79
182	153	-40.9	68	107	80
182	154	-41	66	104	79
182	155	-41.1	70	108	83
182	156	-41.2	68	107	80
182	157	-41.3	70	106	80
182	158	-41.3	72	108	80
182	159	-41.4	68	104	76
182	160	-41.5	67	106	77
182	161	-41.5	65	108	81
182	162	-41.6	64	107	80
182	163	-41.6	65	105	79
182	164	-41.7	66	106	79
182	165	-41.7	65	108	78
182	166	-41.7	67	108	78
182	167	-41.7	69	105	77
182	168	-41.8	69	103	78
182	169	-41.8	69	104	80
182	170	-41.8	68	103	79
182	171	-41.8	66	104	79
182	172	-41.8	68	106	81
182	173	-41.7	67	105	80
182	174	-41.7	65	104	77
182	175	-41.7	64	103	74
182	176	-41.6	64	105	75
182	177	-41.6	67	103	75
182	178	-41.6	66	102	76
182	179	-41.5	65	100	76
182	180	-41.4	65	100	76
182	181	-41.4	65	100	76
182	182	-41.3	66	101	77
182	183	-41.2	67	103	77
182	184	-41.1	66	102	76
182	185	-41	65	104	77
182	186	-40.9	66	105	78
182	187	-40.8	67	106	79
182	188	-40.7	66	104	79
182	189	-40.6	68	103	81
182	190	-40.5	67	102	80
182	191	-40.4	68	103	81
182	192	-40.2	69	103	79
182	193	-40.1	69	104	82
182	194	-39.9	69	102	81
182	195	-39.8	67	101	77
182	196	-39.6	67	101	77
182	197	-39.4	66	101	77
182	198	-39.2	66	101	77
182	199	-39.1	66	102	76
182	200	-38.9	67	101	74
182	201	-38.7	67	101	74
182	202	-38.5	66	102	76
182	203	-38.3	64	99	75
182	204	-38	64	99	75
182	205	-37.8	62	100	75
182	206	-37.6	62	100	75
182	207	-37.3	62	101	74
182	208	-37.1	63	102	75
182	209	-36.8	64	99	75
182	210	-36.6	64	99	75
182	211	-36.3	66	100	75
182	212	-36	67	99	75
182	213	-35.7	66	98	75
182	214	-35.4	66	98	77
182	215	-35.1	63	98	76
182	216	-34.8	61	99	76
182	217	-34.5	63	98	78
182	218	-34.2	60	98	75
182	219	-33.9	61	99	74
182	220	-33.5	61	100	73
182	221	-33.2	64	99	75
182	222	-32.8	64	99	75
182	223	-32.5	64	99	75
182	224	-32.1	63	98	74
182	225	-31.7	62	97	75
182	226	-31.3	62	97	73
182	227	-30.9	62	96	72
182	228	-30.5	62	96	72
182	229	-30.1	61	95	71
182	230	-29.7	62	96	72
182	231	-29.2	62	95	74
182	232	-28.8	61	96	74
182	233	-28.3	61	94	73
182	234	-27.9	60	95	73
182	235	-27.4	60	95	73
182	236	-26.9	61	95	70
182	237	-26.4	60	94	69
182	238	-25.9	60	94	69
182	239	-25.4	60	94	70
182	240	-24.9	59	94	72
182	241	-24.3	57	95	70
182	242	-23.8	59	94	70
182	243	-23.2	58	93	69
182	244	-22.7	58	92	68
182	245	-22.1	56	90	66
182	246	-21.5	56	90	66
182	247	-20.9	56	89	68
182	248	-20.3	57	90	69
182	249	-19.7	56	90	66
182	250	-19	56	90	66
182	251	-18.4	56	90	66
182	252	-17.7	55	89	64
182	253	-17.1	55	89	62
182	254	-16.4	56	88	64
182	255	-15.7	58	88	64
182	256	-15	59	87	65
182	257	-14.2	55	87	64
182	258	-13.5	54	88	64
182	259	-12.7	52	88	62
182	260	-12	50	89	62
182	261	-11.2	51	87	61
182	262	-10.4	52	86	61
182	263	-9.57	52	84	60
182	264	-8.73	52	84	60
182	265	-7.89	53	82	60
182	266	-7.02	53	82	60
182	267	-6.14	54	82	59
182	268	-5.24	53	81	59
182	269	-4.33	55	80	59
182	270	-3.39	54	79	58
182	271	-2.44	52	77	56
182	272	-1.46	54	77	57
182	273	-0.469	52	75	57
182	274	0.549	51	76	57
182	275	1.58	51	75	59
182	276	2.64	51	76	57
182	277	3.72	50	75	56
182	278	4.83	48	73	52
182	279	5.96	47	72	51
182	280	7.11	47	72	51
182	281	8.29	45	72	53
182	282	9.5	43	70	51
182	283	10.7	42	67	48
182	284	12	42	67	48
182	285	13.3	44	69	48
182	286	14.6	45	70	49
182	287	16	44	69	48
182	288	17.4	42	70	47
182	289	18.8	43	68	49
182	290	20.3	40	67	48
182	291	21.8	40	67	48
182	292	23.4	37	66	46
182	293	25	37	64	45
182	294	26.6	38	63	44
182	295	28.3	37	60	40
182	296	30.1	35	56	37
182	297	31.9	33	56	36
182	298	33.8	33	56	36
182	299	35.8	33	54	37
182	300	37.8	30	51	34
182	301	39.9	28	46	32
182	302	42.1	27	45	31
182	303	44.4	27	45	31
182	304	46.9	26	44	30
182	305	49.5	26	42	29
182	306	52.2	25	41	28
182	307	55.1	24	40	27
182	308	58.3	27	39	29
182	309	61.7	31	38	30
182	310	65.5	38	40	35
182	311	69.7	43	44	39
182	312	74.7	48	47	45
183	28	69.8	22	27	21
183	29	65.5	24	31	24
183	30	61.7	26	33	26
183	31	58.2	25	36	28
183	32	55	26	39	30
183	33	52.1	29	43	30
183	34	49.4	29	45	32
183	35	46.8	31	48	32
183	36	44.3	32	49	33
183	37	42	34	51	35
183	38	39.8	34	52	38
183	39	37.7	33	54	37
183	40	35.6	32	55	37
183	41	33.7	38	56	40
183	42	31.8	39	57	41
183	43	30	40	58	42
183	44	28.2	42	59	43
183	45	26.5	43	60	44
183	46	24.9	42	60	44
183	47	23.3	40	63	45
183	48	21.7	40	65	46
183	49	20.2	39	66	47
183	50	18.8	40	67	48
183	51	17.3	41	68	49
183	52	16	42	69	50
183	53	14.6	44	71	52
183	54	13.3	45	72	53
183	55	12	46	73	54
183	56	10.7	46	74	52
183	57	9.51	48	77	57
183	58	8.31	50	77	58
183	59	7.14	53	78	59
183	60	5.99	53	78	59
183	61	4.87	53	78	59
183	62	3.77	52	79	60
183	63	2.7	53	80	61
183	64	1.65	53	80	61
183	65	0.621	53	82	60
183	66	-0.389	55	84	64
183	67	-1.37	54	86	65
183	68	-2.34	52	85	64
183	69	-3.29	52	85	64
183	70	-4.22	54	86	63
183	71	-5.13	57	86	64
183	72	-6.02	58	86	63
183	73	-6.89	57	85	63
183	74	-7.75	58	86	64
183	75	-8.59	59	88	66
183	76	-9.42	58	90	66
183	77	-10.2	57	91	66
183	78	-11	58	92	67
183	79	-11.8	58	92	65
183	80	-12.6	59	92	65
183	81	-13.3	58	92	67
183	82	-14.1	59	93	68
183	83	-14.8	59	94	70
183	84	-15.5	61	95	71
183	85	-16.2	61	95	70
183	86	-16.9	61	95	70
183	87	-17.5	62	96	69
183	88	-18.2	63	97	70
183	89	-18.8	62	99	66
183	90	-19.5	63	100	67
183	91	-20.1	63	100	69
183	92	-20.7	63	97	72
183	93	-21.3	64	98	74
183	94	-21.9	63	98	74
183	95	-22.4	63	98	74
183	96	-23	63	99	73
183	97	-23.6	63	99	71
183	98	-24.1	63	99	73
183	99	-24.6	62	98	72
183	100	-25.2	62	97	73
183	101	-25.7	60	98	73
183	102	-26.2	59	99	73
183	103	-26.7	60	100	74
183	104	-27.1	60	102	78
183	105	-27.6	62	100	75
183	106	-28.1	63	101	78
183	107	-28.5	65	100	78
183	108	-29	66	101	79
183	109	-29.4	64	102	79
183	110	-29.8	67	102	78
183	111	-30.2	67	102	78
183	112	-30.7	67	102	78
183	113	-31.1	64	102	77
183	114	-31.4	64	102	77
183	115	-31.8	65	100	76
183	116	-32.2	66	101	77
183	117	-32.6	67	103	77
183	118	-32.9	67	103	75
183	119	-33.3	64	105	73
183	120	-33.6	62	106	71
183	121	-33.9	64	104	77
183	122	-34.3	64	105	75
183	123	-34.6	65	106	76
183	124	-34.9	65	105	78
183	125	-35.2	63	106	79
183	126	-35.5	65	105	81
183	127	-35.8	66	104	81
183	128	-36.1	68	103	79
183	129	-36.3	68	103	81
183	130	-36.6	68	103	79
183	131	-36.9	69	105	79
183	132	-37.1	68	104	78
183	133	-37.3	65	103	78
183	134	-37.6	67	105	82
183	135	-37.8	69	107	82
183	136	-38	68	107	80
183	137	-38.2	69	105	77
183	138	-38.5	68	107	78
183	139	-38.7	67	106	77
183	140	-38.8	65	106	76
183	141	-39	65	104	75
183	142	-39.2	66	105	76
183	143	-39.4	66	105	76
183	144	-39.6	66	105	76
183	145	-39.7	69	106	75
183	146	-39.9	66	105	74
183	147	-40	65	106	76
183	148	-40.2	65	106	76
183	149	-40.3	67	106	75
183	150	-40.4	69	105	77
183	151	-40.5	70	104	77
183	152	-40.7	70	104	79
183	153	-40.8	66	105	78
183	154	-40.9	66	104	79
183	155	-41	68	106	81
183	156	-41.1	67	106	79
183	157	-41.1	69	105	79
183	158	-41.2	71	107	79
183	159	-41.3	69	105	77
183	160	-41.3	67	106	77
183	161	-41.4	64	107	80
183	162	-41.5	64	107	80
183	163	-41.5	65	105	79
183	164	-41.5	66	106	79
183	165	-41.6	64	107	77
183	166	-41.6	66	107	77
183	167	-41.6	69	105	77
183	168	-41.6	70	104	79
183	169	-41.6	68	103	79
183	170	-41.6	66	101	77
183	171	-41.6	65	103	78
183	172	-41.6	67	105	80
183	173	-41.6	67	105	80
183	174	-41.6	65	104	77
183	175	-41.6	64	103	74
183	176	-41.5	63	104	74
183	177	-41.5	67	103	75
183	178	-41.4	66	102	76
183	179	-41.4	65	100	76
183	180	-41.3	65	100	76
183	181	-41.2	65	100	76
183	182	-41.2	66	101	77
183	183	-41.1	66	102	76
183	184	-41	66	102	76
183	185	-40.9	64	103	76
183	186	-40.8	65	104	77
183	187	-40.7	65	104	77
183	188	-40.6	64	102	77
183	189	-40.5	66	101	79
183	190	-40.4	66	101	79
183	191	-40.2	66	101	79
183	192	-40.1	68	102	78
183	193	-39.9	68	103	81
183	194	-39.8	68	101	80
183	195	-39.6	68	102	78
183	196	-39.5	68	102	78
183	197	-39.3	66	101	77
183	198	-39.1	66	101	77
183	199	-38.9	67	103	77
183	200	-38.7	67	101	74
183	201	-38.5	66	100	73
183	202	-38.3	64	100	74
183	203	-38.1	63	98	74
183	204	-37.9	63	98	74
183	205	-37.7	62	100	75
183	206	-37.4	62	100	75
183	207	-37.2	61	100	73
183	208	-37	61	100	73
183	209	-36.7	63	98	74
183	210	-36.4	64	99	75
183	211	-36.2	65	99	74
183	212	-35.9	66	98	74
183	213	-35.6	65	97	74
183	214	-35.3	65	97	76
183	215	-35	63	98	76
183	216	-34.7	60	98	75
183	217	-34.4	62	97	77
183	218	-34.1	60	98	75
183	219	-33.7	60	98	73
183	220	-33.4	60	99	72
183	221	-33	62	97	73
183	222	-32.7	63	98	74
183	223	-32.3	63	98	74
183	224	-31.9	63	98	74
183	225	-31.6	62	97	75
183	226	-31.2	62	97	73
183	227	-30.8	63	97	73
183	228	-30.4	63	97	73
183	229	-29.9	62	96	72
183	230	-29.5	62	96	72
183	231	-29.1	62	95	74
183	232	-28.6	61	96	74
183	233	-28.2	61	94	73
183	234	-27.7	60	95	73
183	235	-27.2	60	95	73
183	236	-26.8	60	94	69
183	237	-26.3	60	94	69
183	238	-25.8	60	94	69
183	239	-25.2	61	95	71
183	240	-24.7	60	95	73
183	241	-24.2	56	94	69
183	242	-23.6	57	92	68
183	243	-23.1	57	92	68
183	244	-22.5	58	92	68
183	245	-21.9	57	91	67
183	246	-21.4	55	89	65
183	247	-20.7	55	88	67
183	248	-20.1	56	89	68
183	249	-19.5	56	90	66
183	250	-18.9	55	89	65
183	251	-18.2	55	89	65
183	252	-17.6	54	88	63
183	253	-16.9	55	89	62
183	254	-16.2	56	88	64
183	255	-15.5	57	87	63
183	256	-14.8	58	86	64
183	257	-14.1	54	86	63
183	258	-13.3	53	87	63
183	259	-12.6	52	88	62
183	260	-11.8	49	88	61
183	261	-11	52	88	62
183	262	-10.2	52	86	61
183	263	-9.39	53	85	61
183	264	-8.56	53	85	61
183	265	-7.7	54	83	61
183	266	-6.84	53	82	60
183	267	-5.96	53	81	58
183	268	-5.06	52	80	58
183	269	-4.14	55	80	59
183	270	-3.2	54	79	58
183	271	-2.24	52	77	56
183	272	-1.27	53	76	56
183	273	-0.27	53	76	58
183	274	0.744	51	76	57
183	275	1.79	51	75	59
183	276	2.84	50	75	56
183	277	3.93	49	74	55
183	278	5.03	47	72	51
183	279	6.17	47	72	51
183	280	7.32	46	71	50
183	281	8.51	44	71	52
183	282	9.72	42	69	50
183	283	11	42	67	48
183	284	12.2	41	66	47
183	285	13.5	43	68	47
183	286	14.9	43	68	47
183	287	16.2	43	68	47
183	288	17.6	40	68	45
183	289	19.1	43	68	49
183	290	20.5	40	67	48
183	291	22.1	39	66	47
183	292	23.6	37	66	46
183	293	25.2	36	63	44
183	294	26.9	37	62	43
183	295	28.6	36	59	39
183	296	30.4	34	55	36
183	297	32.2	32	55	35
183	298	34.1	32	55	35
183	299	36.1	32	53	36
183	300	38.1	29	50	33
183	301	40.2	28	46	32
183	302	42.5	27	45	31
183	303	44.8	27	45	31
183	304	47.3	27	45	31
183	305	49.9	26	42	29
183	306	52.6	23	39	26
183	307	55.6	25	41	28
183	308	58.7	28	40	30
183	309	62.2	30	37	29
183	310	66	35	37	32
183	311	70.4	35	36	31
183	312	75.5	29	28	26
184	28	70.6	22	27	21
184	29	66.1	25	30	24
184	30	62.2	26	32	28
184	31	58.7	26	35	30
184	32	55.5	26	39	32
184	33	52.6	30	43	33
184	34	49.8	29	45	32
184	35	47.2	30	46	33
184	36	44.7	30	48	32
184	37	42.4	31	49	33
184	38	40.1	32	50	34
184	39	38	31	52	35
184	40	36	32	53	34
184	41	34	36	54	38
184	42	32.1	37	55	39
184	43	30.3	40	57	41
184	44	28.5	41	58	42
184	45	26.8	42	59	43
184	46	25.2	41	59	43
184	47	23.6	39	62	44
184	48	22	40	65	46
184	49	20.5	38	65	46
184	50	19	39	66	47
184	51	17.6	41	68	49
184	52	16.2	43	70	51
184	53	14.8	45	72	53
184	54	13.5	46	73	54
184	55	12.2	46	73	54
184	56	11	47	75	53
184	57	9.74	49	76	57
184	58	8.54	51	76	57
184	59	7.36	52	77	58
184	60	6.22	53	78	59
184	61	5.09	53	78	59
184	62	3.99	52	79	60
184	63	2.91	53	80	61
184	64	1.86	52	80	58
184	65	0.83	51	80	60
184	66	-0.176	52	84	63
184	67	-1.17	54	86	65
184	68	-2.13	52	85	64
184	69	-3.09	52	84	63
184	70	-4.01	54	86	63
184	71	-4.93	57	86	64
184	72	-5.82	57	85	62
184	73	-6.7	57	85	63
184	74	-7.56	58	86	64
184	75	-8.4	59	88	66
184	76	-9.23	60	89	67
184	77	-10	58	90	67
184	78	-10.8	58	92	68
184	79	-11.6	58	92	67
184	80	-12.4	59	91	67
184	81	-13.1	57	91	66
184	82	-13.9	58	94	68
184	83	-14.6	60	96	70
184	84	-15.3	61	96	72
184	85	-16	61	95	70
184	86	-16.7	61	95	70
184	87	-17.4	62	96	69
184	88	-18	63	97	70
184	89	-18.7	62	99	68
184	90	-19.3	63	100	69
184	91	-19.9	62	98	70
184	92	-20.5	62	97	73
184	93	-21.1	62	97	75
184	94	-21.7	63	98	76
184	95	-22.3	63	98	74
184	96	-22.8	61	100	73
184	97	-23.4	63	98	74
184	98	-23.9	64	99	75
184	99	-24.5	64	98	74
184	100	-25	62	97	73
184	101	-25.5	60	98	73
184	102	-26	59	99	73
184	103	-26.5	58	101	74
184	104	-27	60	102	78
184	105	-27.5	62	100	75
184	106	-27.9	63	101	78
184	107	-28.4	64	102	81
184	108	-28.8	66	101	79
184	109	-29.2	66	101	77
184	110	-29.7	67	103	77
184	111	-30.1	68	102	78
184	112	-30.5	68	102	78
184	113	-30.9	64	102	77
184	114	-31.3	63	102	75
184	115	-31.7	64	100	74
184	116	-32	65	101	73
184	117	-32.4	66	102	74
184	118	-32.8	66	103	72
184	119	-33.1	64	103	72
184	120	-33.5	64	105	73
184	121	-33.8	64	104	78
184	122	-34.1	64	103	76
184	123	-34.4	66	105	78
184	124	-34.7	65	105	79
184	125	-35.1	64	104	80
184	126	-35.3	64	103	82
184	127	-35.6	65	103	82
184	128	-35.9	65	100	78
184	129	-36.2	66	104	81
184	130	-36.4	68	103	81
184	131	-36.7	68	103	79
184	132	-37	67	102	78
184	133	-37.2	65	103	78
184	134	-37.4	67	105	80
184	135	-37.7	68	106	81
184	136	-37.9	68	107	80
184	137	-38.1	69	105	77
184	138	-38.3	67	106	79
184	139	-38.5	66	106	79
184	140	-38.7	64	105	75
184	141	-38.9	64	105	75
184	142	-39.1	64	105	75
184	143	-39.2	64	105	75
184	144	-39.4	64	104	77
184	145	-39.6	68	105	74
184	146	-39.7	66	105	76
184	147	-39.9	64	105	75
184	148	-40	65	106	76
184	149	-40.2	68	107	78
184	150	-40.3	68	104	76
184	151	-40.4	68	104	78
184	152	-40.5	69	105	79
184	153	-40.6	64	104	78
184	154	-40.7	65	105	79
184	155	-40.8	66	104	79
184	156	-40.9	68	104	78
184	157	-41	68	104	76
184	158	-41.1	70	105	75
184	159	-41.1	69	106	75
184	160	-41.2	69	105	77
184	161	-41.3	63	106	79
184	162	-41.3	63	106	79
184	163	-41.4	63	106	79
184	164	-41.4	63	106	78
184	165	-41.4	65	105	78
184	166	-41.5	65	104	77
184	167	-41.5	68	104	78
184	168	-41.5	69	105	79
184	169	-41.5	69	104	80
184	170	-41.5	65	104	77
184	171	-41.5	64	104	77
184	172	-41.5	66	106	79
184	173	-41.5	68	107	80
184	174	-41.4	68	104	78
184	175	-41.4	68	104	78
184	176	-41.4	67	103	75
184	177	-41.3	67	103	75
184	178	-41.3	66	102	74
184	179	-41.2	66	102	76
184	180	-41.2	65	100	76
184	181	-41.1	65	100	76
184	182	-41	66	101	77
184	183	-41	67	101	76
184	184	-40.9	67	101	76
184	185	-40.8	66	102	74
184	186	-40.7	66	102	74
184	187	-40.6	64	103	74
184	188	-40.5	64	103	76
184	189	-40.3	66	101	77
184	190	-40.2	67	102	80
184	191	-40.1	66	101	77
184	192	-39.9	67	101	76
184	193	-39.8	67	101	77
184	194	-39.7	66	100	76
184	195	-39.5	68	102	77
184	196	-39.3	67	102	78
184	197	-39.2	65	100	78
184	198	-39	65	100	76
184	199	-38.8	66	102	76
184	200	-38.6	66	100	73
184	201	-38.4	66	100	73
184	202	-38.2	65	99	72
184	203	-38	63	99	73
184	204	-37.8	63	98	74
184	205	-37.5	62	100	75
184	206	-37.3	62	100	75
184	207	-37.1	62	101	74
184	208	-36.8	61	100	73
184	209	-36.6	60	98	75
184	210	-36.3	63	98	76
184	211	-36	64	99	75
184	212	-35.7	64	98	74
184	213	-35.5	63	96	75
184	214	-35.2	63	96	75
184	215	-34.9	62	97	75
184	216	-34.6	60	98	73
184	217	-34.2	60	98	75
184	218	-33.9	60	98	73
184	219	-33.6	60	99	72
184	220	-33.2	60	99	72
184	221	-32.9	62	97	73
184	222	-32.5	62	97	73
184	223	-32.2	63	98	74
